-14.08 4.25 -21.58 131 128 138
-14.08 4.25 -21.42 123 118 123
-14.08 4.25 -21.25 117 113 120
-14.08 4.25 -21.08 121 113 119
-13.92 4.25 -21.92 121 117 125
-13.92 4.25 -21.75 137 128 142
-13.92 4.25 -21.58 151 149 155
-13.92 4.25 -21.42 127 124 129
-13.92 4.25 -21.25 128 125 132
-13.92 4.25 -21.08 110 105 104
-13.75 4.25 -22.08 139 137 149
-13.75 4.25 -21.92 136 132 140
-13.75 4.25 -21.75 140 136 144
-13.75 4.25 -21.58 148 142 151
-13.75 4.25 -21.42 141 131 134
-13.75 4.25 -21.25 128 117 120
-14.92 4.25 -20.75 130 124 122
-14.92 4.25 -20.58 129 119 120
-14.92 4.25 -20.42 135 129 132
-14.92 4.25 -20.25 160 161 166
-14.92 4.25 -20.08 170 174 181
-14.75 4.25 -20.92 116 110 110
-14.75 4.25 -20.75 106 101 106
-14.75 4.25 -20.58 102 95 100
-14.75 4.25 -20.42 111 105 108
-14.75 4.25 -20.25 133 124 128
-14.75 4.25 -20.08 152 146 149
-14.75 4.25 -19.92 157 154 158
-14.58 4.25 -20.92 107 103 105
-14.58 4.25 -20.75 98 93 98
-14.58 4.25 -20.58 107 102 107
-14.58 4.25 -20.42 112 106 113
-14.58 4.25 -20.25 110 99 102
-14.58 4.25 -20.08 127 116 119
-14.42 4.25 -20.92 96 93 98
-14.42 4.25 -20.75 112 111 115
-14.42 4.25 -20.58 125 120 125
-14.42 4.25 -20.42 119 114 119
-14.42 4.25 -20.25 128 119 122
-14.25 4.25 -20.92 118 116 122
-14.25 4.25 -20.75 127 126 130
-14.25 4.25 -20.58 128 127 129
-14.25 4.25 -20.42 133 127 130
-14.25 4.25 -20.25 138 130 130
-14.08 4.25 -20.92 121 113 119
-14.08 4.25 -20.75 124 121 128
-14.08 4.25 -20.58 141 134 135
-13.92 4.25 -20.92 121 116 121
-13.92 4.25 -20.75 136 130 133
-13.58 4.25 -21.58 140 131 135
-13.58 4.25 -21.42 127 121 119
-13.58 4.25 -21.25 127 107 102
-13.42 4.25 -21.58 144 130 128
-13.42 4.25 -21.42 130 122 120
-8.42 4.25 5.42 114 102 98
-8.42 4.25 5.58 99 87 83
-8.25 4.25 5.42 103 89 79
-8.25 4.25 5.58 101 93 86
-8.08 4.25 4.92 139 134 135
-8.08 4.25 5.08 106 97 97
-8.08 4.25 5.25 123 116 118
-8.08 4.25 5.58 131 128 127
-7.92 4.25 4.92 97 85 86
-7.92 4.25 5.08 98 94 97
-7.92 4.25 5.25 121 120 124
-7.92 4.25 5.42 111 103 103
-7.92 4.25 5.58 88 83 88
-7.75 4.25 4.92 80 73 75
-7.75 4.25 5.08 73 69 70
-7.75 4.25 5.25 71 63 65
-7.75 4.25 5.42 65 58 61
-7.75 4.25 5.58 63 55 61
-7.58 4.25 4.92 67 60 60
-7.58 4.25 5.08 77 67 66
-7.58 4.25 5.25 103 97 106
-7.58 4.25 5.42 96 90 99
-7.58 4.25 5.58 75 72 74
-7.42 4.25 4.75 76 71 74
-7.42 4.25 4.92 83 75 84
-7.42 4.25 5.08 75 63 66
-7.42 4.25 5.25 85 69 70
-7.42 4.25 5.42 91 86 94
-7.42 4.25 5.58 101 98 106
-7.25 4.25 4.58 72 66 78
-7.25 4.25 4.75 93 90 98
-7.25 4.25 4.92 77 70 70
-7.25 4.25 5.08 71 65 67
-7.25 4.25 5.25 77 63 64
-7.25 4.25 5.42 105 94 97
-7.25 4.25 5.58 120 121 128
-7.08 4.25 4.58 106 98 108
-7.08 4.25 4.75 87 78 80
-7.08 4.25 4.92 76 69 69
-7.08 4.25 5.08 80 73 73
-7.08 4.25 5.25 83 65 66
-7.08 4.25 5.42 100 85 84
-7.08 4.25 5.58 134 126 132
-8.25 4.25 5.75 108 110 113
-8.25 4.25 5.92 107 105 107
-8.08 4.25 5.75 95 90 90
-8.08 4.25 5.92 83 75 79
-8.08 4.25 6.08 88 83 90
-8.08 4.25 6.25 91 83 82
-7.92 4.25 5.75 84 81 81
-7.92 4.25 5.92 85 80 84
-7.92 4.25 6.08 70 67 78
-7.92 4.25 6.25 74 65 68
-7.75 4.25 5.75 76 70 77
-7.75 4.25 5.92 91 84 84
-7.75 4.25 6.08 93 85 84
-7.75 4.25 6.25 105 102 106
-7.58 4.25 5.75 62 60 63
-7.58 4.25 5.92 69 70 76
-7.42 4.25 5.75 82 74 83
-7.25 4.25 5.75 90 85 95
-6.92 4.25 4.92 109 103 101
-6.92 4.25 5.08 85 74 70
-6.92 4.25 5.25 92 84 86
-6.92 4.25 5.58 143 147 163
-6.75 4.25 5.58 142 136 151
-6.58 4.25 5.08 118 110 108
-6.58 4.25 5.25 112 103 105
-6.58 4.25 5.42 118 112 119
-6.58 4.25 5.58 122 117 122
-6.42 4.25 4.92 95 82 80
-6.42 4.25 5.08 92 79 77
-6.42 4.25 5.25 87 75 73
-6.42 4.25 5.42 104 97 99
-6.75 4.25 6.08 126 119 119
-6.58 4.25 5.92 134 121 131
0.25 4.25 -9.08 151 144 146
0.75 4.25 -9.42 116 107 111
0.92 4.25 -9.42 127 112 109
0.08 4.25 -8.92 160 149 154
0.08 4.25 -8.75 154 135 127
0.25 4.25 -8.92 159 141 136
0.92 4.25 -8.92 124 110 114
0.92 4.25 -8.75 130 113 118
0.92 4.25 -8.58 131 122 130
1.08 4.25 -9.08 119 109 110
1.25 4.25 -9.25 115 104 104
1.25 4.25 -9.08 107 96 99
1.42 4.25 -9.08 100 92 98
1.58 4.25 -9.08 101 92 94
1.08 4.25 -8.92 108 95 98
1.08 4.25 -8.75 108 98 104
1.08 4.25 -8.58 122 106 108
1.08 4.25 -8.42 122 109 108
1.08 4.25 -8.25 111 104 109
1.25 4.25 -8.92 98 92 93
1.25 4.25 -8.75 83 75 79
1.25 4.25 -8.58 105 93 100
1.25 4.25 -8.42 95 80 87
1.25 4.25 -8.25 79 66 73
1.25 4.25 -8.08 92 73 78
1.42 4.25 -8.92 87 80 85
1.42 4.25 -8.75 85 80 84
1.42 4.25 -8.58 98 90 96
1.42 4.25 -8.42 92 82 91
1.42 4.25 -8.25 70 62 67
1.42 4.25 -8.08 84 72 76
1.42 4.25 -7.92 120 106 110
1.42 4.25 -7.75 123 113 117
1.58 4.25 -8.92 88 78 88
1.58 4.25 -8.75 103 95 102
1.58 4.25 -8.58 100 95 98
1.58 4.25 -8.42 99 92 99
1.58 4.25 -8.25 100 94 95
1.58 4.25 -8.08 104 91 94
1.58 4.25 -7.92 105 92 95
1.58 4.25 -7.75 130 119 122
1.75 4.25 -8.92 90 87 97
1.75 4.25 -8.75 82 75 85
1.75 4.25 -8.58 86 80 88
1.75 4.25 -8.42 100 90 94
1.75 4.25 -8.25 100 89 92
1.75 4.25 -8.08 113 101 102
1.75 4.25 -7.92 125 114 117
1.75 4.25 -7.75 141 129 126
1.92 4.25 -8.92 87 83 86
1.92 4.25 -8.58 79 76 84
1.92 4.25 -8.42 88 79 81
1.92 4.25 -8.25 101 91 95
1.92 4.25 -8.08 109 98 101
1.92 4.25 -7.92 110 99 104
1.92 4.25 -7.75 139 129 130
1.42 4.25 -7.58 121 114 114
1.58 4.25 -7.58 141 132 136
-19.92 4.08 -10.25 123 108 102
-19.92 4.08 -10.08 127 112 109
-19.75 4.08 -10.25 101 86 79
-19.75 4.08 -10.08 119 102 93
-19.58 4.08 -10.25 99 86 84
-19.42 4.08 -10.25 89 73 69
-18.92 4.08 -11.58 92 82 81
-18.92 4.08 -11.42 92 81 84
-18.92 4.08 -11.25 98 87 85
-18.92 4.08 -11.08 108 94 91
-18.92 4.08 -10.92 112 96 88
-18.75 4.08 -11.58 93 81 82
-18.75 4.08 -11.42 99 86 84
-18.75 4.08 -11.25 117 104 99
-18.58 4.08 -11.58 109 95 92
-13.42 4.08 -22.42 122 111 114
-13.25 4.08 -22.58 92 79 82
-14.75 4.08 -21.25 142 136 136
-14.75 4.08 -21.08 135 134 136
-14.58 4.08 -21.42 119 110 113
-14.58 4.08 -21.25 126 117 121
-14.58 4.08 -21.08 119 115 118
-14.42 4.08 -21.58 130 121 123
-14.42 4.08 -21.42 128 123 124
-14.42 4.08 -21.25 120 117 122
-14.42 4.08 -21.08 101 95 104
-14.25 4.08 -21.75 157 152 151
-14.25 4.08 -21.58 135 128 136
-14.25 4.08 -21.42 131 128 133
-14.25 4.08 -21.25 113 108 113
-14.25 4.08 -21.08 105 99 108
-14.08 4.08 -21.92 151 149 151
-14.08 4.08 -21.75 126 117 120
-14.08 4.08 -21.58 121 111 117
-14.08 4.08 -21.42 126 121 126
-14.08 4.08 -21.25 124 120 127
-14.08 4.08 -21.08 119 116 121
-13.92 4.08 -21.92 128 122 125
-13.92 4.08 -21.75 132 123 127
-13.92 4.08 -21.58 137 131 131
-13.92 4.08 -21.42 131 126 127
-13.92 4.08 -21.25 108 103 108
-13.92 4.08 -21.08 117 115 121
-13.75 4.08 -22.08 132 133 144
-13.75 4.08 -21.92 148 143 153
-13.75 4.08 -21.75 153 150 154
-13.75 4.08 -21.58 129 122 122
-13.75 4.08 -21.42 122 113 117
-13.75 4.08 -21.25 127 120 120
-13.75 4.08 -21.08 110 105 110
-14.92 4.08 -20.58 136 129 127
-14.92 4.08 -20.42 155 149 154
-14.92 4.08 -20.25 166 162 165
-14.92 4.08 -20.08 177 177 177
-14.75 4.08 -20.92 133 130 135
-14.75 4.08 -20.75 119 113 116
-14.75 4.08 -20.58 127 120 121
-14.75 4.08 -20.42 128 123 128
-14.75 4.08 -20.25 148 145 147
-14.75 4.08 -20.08 165 169 176
-14.75 4.08 -19.92 171 169 171
-14.58 4.08 -20.92 102 97 101
-14.58 4.08 -20.75 94 90 96
-14.58 4.08 -20.58 101 94 99
-14.58 4.08 -20.42 118 110 116
-14.58 4.08 -20.25 137 129 135
-14.42 4.08 -20.92 97 93 96
-14.42 4.08 -20.75 93 91 96
-14.42 4.08 -20.58 116 114 118
-14.42 4.08 -20.42 121 117 124
-14.42 4.08 -20.25 143 135 141
-14.42 4.08 -20.08 154 150 153
-14.25 4.08 -20.92 112 110 116
-14.25 4.08 -20.75 116 114 120
-14.25 4.08 -20.58 119 118 125
-14.25 4.08 -20.42 127 126 133
-14.25 4.08 -20.25 140 131 135
-14.08 4.08 -20.92 117 115 119
-14.08 4.08 -20.75 124 124 133
-14.08 4.08 -20.58 138 133 138
-13.92 4.08 -20.92 114 112 116
-13.92 4.08 -20.75 128 120 126
-13.75 4.08 -20.92 113 107 114
-13.58 4.08 -22.25 127 116 119
-13.58 4.08 -21.42 118 110 110
-8.42 4.08 5.42 114 102 98
-8.42 4.08 5.58 96 84 80
-8.42 4.08 5.75 89 79 78
-8.25 4.08 5.58 110 107 106
-8.08 4.08 4.92 132 117 119
-8.08 4.08 5.08 102 93 99
-8.08 4.08 5.25 129 123 121
-7.92 4.08 4.92 101 95 96
-7.92 4.08 5.08 110 110 110
-7.92 4.08 5.25 98 92 93
-7.92 4.08 5.42 77 67 62
-7.92 4.08 5.58 82 76 78
-7.75 4.08 4.75 116 108 106
-7.75 4.08 4.92 93 89 92
-7.75 4.08 5.08 69 61 60
-7.75 4.08 5.25 67 63 67
-7.75 4.08 5.42 60 56 60
-7.75 4.08 5.58 58 54 58
-7.58 4.08 4.75 80 72 71
-7.58 4.08 4.92 67 61 62
-7.58 4.08 5.08 75 75 75
-7.58 4.08 5.25 77 74 78
-7.58 4.08 5.42 68 63 68
-7.58 4.08 5.58 76 74 79
-7.42 4.08 4.75 64 59 59
-7.42 4.08 4.92 72 63 69
-7.42 4.08 5.08 79 67 65
-7.42 4.08 5.25 78 75 83
-7.42 4.08 5.42 71 69 78
-7.42 4.08 5.58 66 63 70
-7.25 4.08 4.58 95 91 97
-7.25 4.08 4.75 79 71 75
-7.25 4.08 4.92 76 67 69
-7.25 4.08 5.08 73 62 66
-7.25 4.08 5.25 68 61 66
-7.25 4.08 5.42 82 80 86
-7.25 4.08 5.58 75 67 74
-7.08 4.08 4.58 116 112 119
-7.08 4.08 4.75 120 111 114
-7.08 4.08 4.92 88 78 77
-7.08 4.08 5.08 77 64 66
-7.08 4.08 5.25 81 64 60
-7.08 4.08 5.42 113 115 118
-7.08 4.08 5.58 104 98 103
-8.25 4.08 5.75 114 114 120
-8.25 4.08 5.92 76 71 76
-8.25 4.08 6.08 87 83 86
-8.08 4.08 5.75 97 99 107
-8.08 4.08 5.92 81 73 75
-8.08 4.08 6.08 84 78 79
-8.08 4.08 6.25 87 83 89
-7.92 4.08 5.92 88 85 87
-7.92 4.08 6.08 88 81 83
-7.92 4.08 6.25 71 62 63
-7.92 4.08 6.42 93 88 90
-7.75 4.08 5.75 63 59 65
-7.75 4.08 5.92 90 87 91
-7.75 4.08 6.08 104 96 100
-7.75 4.08 6.25 109 105 106
-7.58 4.08 5.75 67 64 68
-7.58 4.08 5.92 65 58 58
-7.58 4.08 6.08 81 80 87
-7.42 4.08 5.75 71 70 77
-7.42 4.08 5.92 103 108 116
-7.25 4.08 5.75 65 65 73
-6.92 4.08 5.08 117 104 99
-6.92 4.08 5.25 104 91 94
-6.92 4.08 5.42 120 116 124
-6.92 4.08 5.58 125 127 136
-6.75 4.08 5.42 121 108 117
-6.58 4.08 5.42 131 122 126
-6.42 4.08 5.08 96 85 83
-6.42 4.08 5.25 108 95 98
-6.42 4.08 5.42 147 143 146
0.92 4.08 -8.75 136 125 128
1.08 4.08 -9.08 123 110 109
1.25 4.08 -9.25 119 107 108
1.25 4.08 -9.08 96 89 96
1.42 4.08 -9.08 88 81 86
1.58 4.08 -9.08 89 82 87
1.75 4.08 -9.08 116 111 116
1.08 4.08 -8.92 102 87 87
1.08 4.08 -8.75 108 97 102
1.08 4.08 -8.58 121 110 113
1.08 4.08 -8.42 118 108 111
1.08 4.08 -8.25 119 110 118
1.25 4.08 -8.92 100 94 97
1.25 4.08 -8.75 103 96 101
1.25 4.08 -8.58 107 96 101
1.25 4.08 -8.42 101 84 90
1.25 4.08 -8.25 101 84 90
1.25 4.08 -8.08 120 104 108
1.25 4.08 -7.92 129 121 119
1.25 4.08 -7.75 121 111 112
1.42 4.08 -8.92 79 74 82
1.42 4.08 -8.75 84 76 83
1.42 4.08 -8.58 97 84 93
1.42 4.08 -8.42 79 70 75
1.42 4.08 -8.25 87 69 76
1.42 4.08 -8.08 102 86 88
1.42 4.08 -7.92 110 98 104
1.42 4.08 -7.75 119 110 114
1.58 4.08 -8.92 76 70 77
1.58 4.08 -8.75 75 69 77
1.58 4.08 -8.58 93 85 94
1.58 4.08 -8.42 103 92 94
1.58 4.08 -8.25 110 96 98
1.58 4.08 -8.08 121 109 110
1.58 4.08 -7.92 111 101 107
1.58 4.08 -7.75 121 112 116
1.75 4.08 -8.92 81 75 87
1.75 4.08 -8.75 78 74 83
1.75 4.08 -8.58 89 80 85
1.75 4.08 -8.42 94 85 93
1.75 4.08 -8.25 103 90 93
1.75 4.08 -8.08 107 94 97
1.75 4.08 -7.92 119 111 117
1.75 4.08 -7.75 129 117 114
1.92 4.08 -8.75 94 94 102
1.92 4.08 -8.58 83 74 81
1.92 4.08 -8.42 93 85 88
1.92 4.08 -8.25 94 82 83
1.92 4.08 -8.08 90 80 86
1.92 4.08 -7.92 105 95 110
2.08 4.08 -8.75 102 99 103
1.42 4.08 -7.58 131 121 125
-13.42 3.92 -22.42 114 105 107
-13.25 3.92 -22.58 102 93 95
-13.25 3.92 -22.42 125 109 113
-13.08 3.92 -22.58 116 114 118
-13.08 3.92 -22.42 152 131 125
-14.75 3.92 -21.25 151 151 157
-14.75 3.92 -21.08 146 143 147
-14.58 3.92 -21.58 133 129 126
-14.58 3.92 -21.42 127 124 129
-14.58 3.92 -21.25 123 120 125
-14.58 3.92 -21.08 122 119 124
-14.42 3.92 -21.58 137 130 131
-14.42 3.92 -21.42 127 120 121
-14.42 3.92 -21.25 117 115 119
-14.42 3.92 -21.08 105 99 108
-14.25 3.92 -21.75 152 143 147
-14.25 3.92 -21.58 136 127 131
-14.25 3.92 -21.42 131 128 133
-14.25 3.92 -21.25 122 119 124
-14.25 3.92 -21.08 123 120 125
-14.08 3.92 -21.75 126 119 120
-14.08 3.92 -21.58 122 113 116
-14.08 3.92 -21.42 120 114 117
-14.08 3.92 -21.25 113 108 116
-14.08 3.92 -21.08 111 106 111
-13.92 3.92 -21.92 140 139 146
-13.92 3.92 -21.75 122 115 117
-13.92 3.92 -21.58 125 115 116
-13.92 3.92 -21.42 117 107 110
-13.92 3.92 -21.25 109 103 111
-13.92 3.92 -21.08 116 110 117
-13.75 3.92 -22.08 141 140 147
-13.75 3.92 -21.92 150 149 157
-13.75 3.92 -21.75 146 144 146
-13.75 3.92 -21.58 122 116 114
-13.75 3.92 -21.42 111 104 106
-13.75 3.92 -21.25 119 117 123
-13.75 3.92 -21.08 124 121 126
-14.92 3.92 -20.42 165 159 165
-14.92 3.92 -20.25 165 154 159
-14.92 3.92 -20.08 172 164 170
-14.75 3.92 -20.75 143 138 140
-14.75 3.92 -20.58 146 141 143
-14.75 3.92 -20.42 148 143 150
-14.75 3.92 -20.25 150 146 155
-14.75 3.92 -20.08 162 162 166
-14.58 3.92 -20.92 103 96 103
-14.58 3.92 -20.75 113 108 115
-14.58 3.92 -20.58 126 123 130
-14.58 3.92 -20.42 136 130 133
-14.58 3.92 -20.25 160 161 166
-14.58 3.92 -20.08 170 173 178
-14.42 3.92 -20.92 97 90 97
-14.42 3.92 -20.75 95 93 101
-14.42 3.92 -20.58 96 93 101
-14.42 3.92 -20.42 126 125 132
-14.42 3.92 -20.25 158 159 173
-14.42 3.92 -20.08 169 167 167
-14.25 3.92 -20.92 110 108 114
-14.25 3.92 -20.75 105 104 111
-14.25 3.92 -20.58 115 113 119
-14.25 3.92 -20.42 129 124 129
-14.08 3.92 -20.92 114 112 116
-14.08 3.92 -20.75 115 116 127
-14.08 3.92 -20.58 132 129 136
-14.08 3.92 -20.42 152 145 147
-13.92 3.92 -20.92 121 119 125
-13.92 3.92 -20.75 129 123 126
-13.92 3.92 -20.58 142 134 132
-13.75 3.92 -20.92 110 105 110
-13.58 3.92 -22.25 117 112 117
-13.58 3.92 -22.08 131 126 127
-13.42 3.92 -22.25 136 127 131
-8.42 3.92 5.25 143 138 140
-8.42 3.92 5.42 122 107 101
-8.42 3.92 5.58 96 83 81
-8.42 3.92 5.75 95 88 90
-8.25 3.92 5.58 108 102 98
-8.08 3.92 4.92 130 123 119
-8.08 3.92 5.08 112 95 93
-8.08 3.92 5.25 141 133 128
-7.92 3.92 4.92 121 121 126
-7.92 3.92 5.08 115 114 116
-7.92 3.92 5.25 89 79 78
-7.92 3.92 5.42 62 55 57
-7.92 3.92 5.58 65 60 63
-7.75 3.92 4.75 137 139 142
-7.75 3.92 4.92 83 75 79
-7.75 3.92 5.08 66 62 65
-7.75 3.92 5.25 64 63 65
-7.75 3.92 5.42 52 51 55
-7.75 3.92 5.58 55 54 61
-7.58 3.92 4.75 66 59 64
-7.58 3.92 4.92 72 73 74
-7.58 3.92 5.08 75 72 74
-7.58 3.92 5.25 59 56 60
-7.58 3.92 5.42 51 50 57
-7.58 3.92 5.58 61 58 66
-7.42 3.92 4.75 65 56 62
-7.42 3.92 4.92 75 70 73
-7.42 3.92 5.08 87 84 88
-7.42 3.92 5.25 68 66 71
-7.42 3.92 5.42 49 49 54
-7.42 3.92 5.58 56 53 60
-7.25 3.92 4.75 85 75 78
-7.25 3.92 4.92 85 68 68
-7.25 3.92 5.08 84 75 78
-7.25 3.92 5.25 74 71 78
-7.25 3.92 5.42 61 57 63
-7.25 3.92 5.58 56 50 56
-7.08 3.92 4.58 114 101 110
-7.08 3.92 4.75 122 119 124
-7.08 3.92 4.92 107 97 103
-7.08 3.92 5.08 95 84 82
-7.08 3.92 5.25 94 91 100
-7.08 3.92 5.42 84 80 86
-7.08 3.92 5.58 62 60 66
-8.25 3.92 5.75 84 77 77
-8.25 3.92 5.92 76 69 69
-8.25 3.92 6.08 79 73 76
-8.08 3.92 5.92 98 97 106
-8.08 3.92 6.08 88 83 88
-8.08 3.92 6.25 73 68 71
-8.08 3.92 6.42 89 80 82
-7.92 3.92 6.08 83 79 82
-7.92 3.92 6.25 76 71 71
-7.92 3.92 6.42 91 87 93
-7.75 3.92 5.75 59 55 61
-7.75 3.92 5.92 83 78 83
-7.75 3.92 6.08 94 86 88
-7.75 3.92 6.25 104 100 103
-7.58 3.92 5.75 73 70 74
-7.58 3.92 5.92 70 63 68
-7.58 3.92 6.08 73 65 67
-7.42 3.92 5.75 74 70 76
-7.42 3.92 5.92 84 81 85
-7.42 3.92 6.08 116 119 123
-7.25 3.92 5.75 68 66 77
-7.25 3.92 5.92 101 101 104
-6.92 3.92 4.58 128 124 131
-6.92 3.92 4.75 123 117 117
-6.92 3.92 4.92 111 98 93
-6.92 3.92 5.08 123 108 110
-6.92 3.92 5.25 123 124 131
-6.92 3.92 5.42 125 128 132
-6.92 3.92 5.58 110 113 130
-6.75 3.92 5.42 152 143 153
-6.42 3.92 5.25 139 124 124
0.92 3.92 -8.75 118 105 103
1.08 3.92 -9.08 100 89 92
1.25 3.92 -9.25 100 92 96
1.25 3.92 -9.08 77 70 75
1.42 3.92 -9.25 104 98 107
1.42 3.92 -9.08 83 77 86
1.58 3.92 -9.08 78 71 76
1.75 3.92 -9.08 95 87 91
1.08 3.92 -8.92 100 92 96
1.08 3.92 -8.75 112 101 106
1.08 3.92 -8.58 104 96 103
1.08 3.92 -8.42 110 103 108
1.08 3.92 -8.25 103 96 101
1.25 3.92 -8.92 97 92 97
1.25 3.92 -8.75 104 95 97
1.25 3.92 -8.58 102 89 94
1.25 3.92 -8.42 114 103 108
1.25 3.92 -8.25 110 103 108
1.25 3.92 -8.08 120 107 106
1.25 3.92 -7.92 134 127 127
1.25 3.92 -7.75 108 99 99
1.42 3.92 -8.92 84 78 87
1.42 3.92 -8.75 85 78 83
1.42 3.92 -8.58 102 88 93
1.42 3.92 -8.42 100 86 91
1.42 3.92 -8.25 107 87 93
1.42 3.92 -8.08 117 103 107
1.42 3.92 -7.92 127 116 119
1.42 3.92 -7.75 106 97 97
1.58 3.92 -8.92 67 64 71
1.58 3.92 -8.75 69 64 72
1.58 3.92 -8.58 88 77 85
1.58 3.92 -8.42 100 86 91
1.58 3.92 -8.25 114 103 108
1.58 3.92 -8.08 113 107 110
1.58 3.92 -7.92 123 118 123
1.58 3.92 -7.75 121 112 116
1.75 3.92 -8.92 69 65 71
1.75 3.92 -8.75 81 76 84
1.75 3.92 -8.58 90 79 82
1.75 3.92 -8.42 95 87 90
1.75 3.92 -8.25 92 80 85
1.75 3.92 -8.08 90 82 86
1.75 3.92 -7.92 113 102 107
1.75 3.92 -7.75 123 111 120
1.92 3.92 -8.75 90 80 89
1.92 3.92 -8.58 89 83 91
1.92 3.92 -8.42 82 75 80
1.92 3.92 -8.25 89 82 84
1.92 3.92 -8.08 101 93 102
2.08 3.92 -8.58 111 108 118
2.08 3.92 -8.42 106 101 106
1.75 3.92 -7.58 138 133 134
0.42 3.92 -2.42 82 80 89
0.58 3.92 -2.42 70 71 77
-13.42 3.75 -22.42 116 106 109
-13.25 3.75 -22.42 126 117 121
-13.08 3.75 -22.75 94 83 89
-13.08 3.75 -22.58 139 133 136
-13.08 3.75 -22.42 131 121 127
-12.92 3.75 -22.42 119 114 122
-14.75 3.75 -21.42 166 166 172
-14.75 3.75 -21.25 160 159 169
-14.75 3.75 -21.08 152 152 158
-14.58 3.75 -21.42 138 139 146
-14.58 3.75 -21.25 136 135 142
-14.58 3.75 -21.08 127 120 128
-14.42 3.75 -21.58 145 139 142
-14.42 3.75 -21.42 124 120 123
-14.42 3.75 -21.25 118 117 119
-14.42 3.75 -21.08 122 119 124
-14.25 3.75 -21.75 143 135 135
-14.25 3.75 -21.58 132 124 130
-14.25 3.75 -21.42 127 123 126
-14.25 3.75 -21.25 123 119 127
-14.25 3.75 -21.08 116 114 118
-14.08 3.75 -21.92 148 140 140
-14.08 3.75 -21.75 139 135 142
-14.08 3.75 -21.58 117 110 112
-14.08 3.75 -21.42 110 103 105
-14.08 3.75 -21.25 114 109 114
-14.08 3.75 -21.08 117 113 121
-13.92 3.75 -21.92 142 138 143
-13.92 3.75 -21.75 132 129 134
-13.92 3.75 -21.58 123 113 114
-13.92 3.75 -21.42 114 103 109
-13.92 3.75 -21.25 116 109 114
-13.92 3.75 -21.08 113 111 123
-13.75 3.75 -22.08 141 138 148
-13.75 3.75 -21.92 140 136 144
-13.75 3.75 -21.75 135 132 137
-13.75 3.75 -21.58 123 118 123
-13.75 3.75 -21.42 106 100 105
-13.75 3.75 -21.25 118 112 115
-13.75 3.75 -21.08 125 122 127
-14.92 3.75 -20.42 172 170 172
-14.92 3.75 -20.25 161 157 160
-14.92 3.75 -20.08 167 156 155
-14.92 3.75 -19.92 179 171 171
-14.75 3.75 -20.58 169 166 173
-14.75 3.75 -20.42 172 172 178
-14.75 3.75 -20.25 155 152 156
-14.75 3.75 -20.08 154 151 155
-14.75 3.75 -19.92 158 157 165
-14.58 3.75 -20.92 115 107 116
-14.58 3.75 -20.75 126 118 124
-14.58 3.75 -20.58 149 144 149
-14.58 3.75 -20.42 154 156 163
-14.58 3.75 -20.25 157 154 158
-14.58 3.75 -20.08 161 162 169
-14.58 3.75 -19.92 167 170 175
-14.42 3.75 -20.92 125 121 128
-14.42 3.75 -20.75 120 120 125
-14.42 3.75 -20.58 135 134 138
-14.42 3.75 -20.42 148 154 164
-14.42 3.75 -20.25 167 167 173
-14.42 3.75 -19.92 176 177 179
-14.25 3.75 -20.92 115 110 115
-14.25 3.75 -20.75 112 106 113
-14.25 3.75 -20.58 114 113 120
-14.25 3.75 -20.42 149 149 159
-14.25 3.75 -20.25 176 175 179
-14.08 3.75 -20.92 116 110 117
-14.08 3.75 -20.75 112 111 118
-14.08 3.75 -20.58 122 120 132
-14.08 3.75 -20.42 152 150 156
-13.92 3.75 -20.92 120 116 124
-13.92 3.75 -20.75 118 112 119
-13.92 3.75 -20.58 140 131 139
-13.75 3.75 -20.92 122 117 122
-13.58 3.75 -22.25 129 125 132
-13.58 3.75 -22.08 132 124 130
-13.58 3.75 -21.92 141 139 136
-13.58 3.75 -21.75 128 121 122
-13.42 3.75 -22.25 120 112 118
-13.42 3.75 -22.08 147 140 148
-13.25 3.75 -22.25 144 134 137
-8.42 3.75 5.42 120 103 100
-8.42 3.75 5.58 108 90 88
-8.42 3.75 5.75 115 112 108
-8.08 3.75 4.92 150 141 134
-8.08 3.75 5.08 132 125 126
-8.08 3.75 5.25 153 148 143
-7.92 3.75 4.92 115 114 116
-7.92 3.75 5.08 105 101 104
-7.92 3.75 5.25 75 70 70
-7.92 3.75 5.42 63 57 60
-7.92 3.75 5.58 61 57 63
-7.75 3.75 4.75 125 114 113
-7.75 3.75 4.92 69 61 65
-7.75 3.75 5.08 66 63 65
-7.75 3.75 5.25 64 63 65
-7.75 3.75 5.42 51 50 54
-7.75 3.75 5.58 49 51 57
-7.58 3.75 4.58 129 131 130
-7.58 3.75 4.75 67 63 69
-7.58 3.75 4.92 66 68 71
-7.58 3.75 5.08 66 62 65
-7.58 3.75 5.25 59 57 59
-7.58 3.75 5.42 50 50 53
-7.58 3.75 5.58 49 49 57
-7.42 3.75 4.58 85 77 81
-7.42 3.75 4.75 75 70 74
-7.42 3.75 4.92 94 91 96
-7.42 3.75 5.08 80 73 76
-7.42 3.75 5.25 58 54 60
-7.42 3.75 5.42 49 49 54
-7.42 3.75 5.58 50 49 51
-7.25 3.75 4.58 89 75 77
-7.25 3.75 4.75 82 63 62
-7.25 3.75 4.92 101 94 94
-7.25 3.75 5.08 95 94 102
-7.25 3.75 5.25 64 59 62
-7.25 3.75 5.42 58 56 61
-7.25 3.75 5.58 55 54 60
-7.08 3.75 4.58 107 96 101
-7.08 3.75 4.75 108 97 102
-7.08 3.75 4.92 120 112 110
-7.08 3.75 5.08 95 91 97
-7.08 3.75 5.25 71 64 69
-7.08 3.75 5.42 56 56 64
-7.08 3.75 5.58 57 56 63
-8.25 3.75 5.75 86 76 75
-8.25 3.75 5.92 84 79 83
-8.25 3.75 6.08 73 67 68
-8.25 3.75 6.25 91 86 91
-8.08 3.75 5.92 102 101 105
-8.08 3.75 6.08 71 66 66
-8.08 3.75 6.25 70 66 67
-8.08 3.75 6.58 132 131 135
-7.92 3.75 5.75 74 68 69
-7.92 3.75 6.25 83 76 76
-7.92 3.75 6.42 95 89 91
-7.75 3.75 5.75 55 54 59
-7.75 3.75 5.92 60 57 59
-7.75 3.75 6.08 77 71 75
-7.75 3.75 6.25 92 87 86
-7.58 3.75 5.75 67 64 71
-7.58 3.75 5.92 79 78 80
-7.58 3.75 6.08 64 55 56
-7.58 3.75 6.25 93 89 92
-7.42 3.75 5.75 73 68 76
-7.42 3.75 5.92 81 73 82
-7.42 3.75 6.08 108 106 112
-7.25 3.75 5.75 60 56 60
-7.25 3.75 5.92 81 85 93
-7.08 3.75 5.75 88 94 100
-6.92 3.75 4.42 126 113 118
-6.92 3.75 4.58 116 111 113
-6.92 3.75 4.75 117 108 105
-6.92 3.75 4.92 109 101 105
-6.92 3.75 5.08 111 106 113
-6.92 3.75 5.25 121 120 122
-6.92 3.75 5.42 95 93 99
-6.92 3.75 5.58 89 89 98
0.92 3.75 -8.92 100 91 93
0.92 3.75 -8.75 109 96 96
1.08 3.75 -9.08 88 83 90
1.25 3.75 -9.25 79 75 81
1.25 3.75 -9.08 73 70 77
1.42 3.75 -9.25 83 80 88
1.42 3.75 -9.08 63 64 74
1.58 3.75 -9.25 102 93 95
1.58 3.75 -9.08 66 60 67
1.75 3.75 -9.08 73 67 73
1.08 3.75 -8.92 92 87 92
1.08 3.75 -8.75 101 92 98
1.08 3.75 -8.58 100 91 93
1.08 3.75 -8.42 99 91 98
1.08 3.75 -8.25 115 107 110
1.25 3.75 -8.92 80 73 78
1.25 3.75 -8.75 93 82 85
1.25 3.75 -8.58 102 89 93
1.25 3.75 -8.42 106 96 102
1.25 3.75 -8.25 104 97 99
1.25 3.75 -8.08 105 96 95
1.25 3.75 -7.75 114 109 116
1.42 3.75 -8.92 74 74 83
1.42 3.75 -8.75 97 88 94
1.42 3.75 -8.58 108 96 101
1.42 3.75 -8.42 116 105 109
1.42 3.75 -8.25 118 109 112
1.42 3.75 -8.08 106 99 104
1.42 3.75 -7.92 111 102 104
1.58 3.75 -8.92 73 68 76
1.58 3.75 -8.75 83 74 81
1.58 3.75 -8.58 98 84 89
1.58 3.75 -8.42 104 90 95
1.58 3.75 -8.25 104 103 110
1.58 3.75 -8.08 113 108 113
1.58 3.75 -7.92 121 118 123
1.58 3.75 -7.75 137 129 135
1.75 3.75 -8.92 71 66 74
1.75 3.75 -8.75 85 77 84
1.75 3.75 -8.58 84 75 81
1.75 3.75 -8.42 85 77 84
1.75 3.75 -8.25 90 80 86
1.75 3.75 -8.08 97 83 85
1.75 3.75 -7.92 122 108 112
1.92 3.75 -8.92 82 80 89
1.92 3.75 -8.75 78 74 83
1.92 3.75 -8.58 78 71 76
1.92 3.75 -8.42 79 68 74
1.92 3.75 -8.25 81 71 79
1.92 3.75 -7.92 111 99 105
2.08 3.75 -8.58 117 112 120
2.08 3.75 -8.42 110 104 111
0.42 3.75 -2.42 73 69 80
0.58 3.75 -2.58 96 95 108
0.58 3.75 -2.42 65 63 72
-13.42 3.58 -22.42 145 135 138
-13.25 3.58 -22.42 140 135 136
-13.08 3.58 -22.58 127 116 126
-13.08 3.58 -22.42 131 127 139
-12.92 3.58 -22.75 122 116 116
-12.92 3.58 -22.58 98 92 101
-14.75 3.58 -21.08 168 172 175
-14.58 3.58 -21.42 149 145 154
-14.58 3.58 -21.25 143 138 145
-14.58 3.58 -21.08 139 138 145
-14.42 3.58 -21.75 146 141 143
-14.42 3.58 -21.58 140 139 141
-14.42 3.58 -21.42 134 130 133
-14.42 3.58 -21.25 133 130 135
-14.42 3.58 -21.08 124 121 126
-14.25 3.58 -21.75 141 137 140
-14.25 3.58 -21.58 134 130 137
-14.25 3.58 -21.42 132 132 138
-14.25 3.58 -21.25 128 125 130
-14.25 3.58 -21.08 125 121 128
-14.08 3.58 -21.92 147 142 144
-14.08 3.58 -21.75 135 130 135
-14.08 3.58 -21.58 126 125 127
-14.08 3.58 -21.42 108 103 108
-14.08 3.58 -21.25 112 105 110
-14.08 3.58 -21.08 121 116 124
-13.92 3.58 -21.92 133 125 131
-13.92 3.58 -21.75 126 121 122
-13.92 3.58 -21.58 131 128 133
-13.92 3.58 -21.42 116 107 111
-13.92 3.58 -21.25 119 110 114
-13.92 3.58 -21.08 119 112 120
-13.75 3.58 -22.08 138 132 135
-13.75 3.58 -21.92 130 127 132
-13.75 3.58 -21.75 138 134 142
-13.75 3.58 -21.58 123 120 130
-13.75 3.58 -21.42 110 105 110
-13.75 3.58 -21.25 115 109 112
-13.75 3.58 -21.08 119 113 116
-14.92 3.58 -20.25 168 164 161
-14.92 3.58 -20.08 158 150 150
-14.92 3.58 -19.92 162 143 136
-14.75 3.58 -20.25 175 170 172
-14.75 3.58 -20.08 161 154 156
-14.58 3.58 -20.92 140 138 144
-14.58 3.58 -20.75 140 132 138
-14.58 3.58 -20.58 155 154 158
-14.58 3.58 -20.42 156 155 163
-14.58 3.58 -20.25 154 153 161
-14.58 3.58 -20.08 155 149 153
-14.58 3.58 -19.92 149 146 150
-14.58 3.58 -19.75 144 142 148
-14.42 3.58 -20.92 135 132 137
-14.42 3.58 -20.75 148 145 149
-14.42 3.58 -20.58 157 160 167
-14.42 3.58 -20.42 167 170 181
-14.42 3.58 -20.25 159 161 170
-14.25 3.58 -20.92 127 126 133
-14.25 3.58 -20.75 127 123 130
-14.25 3.58 -20.58 151 152 163
-14.25 3.58 -20.42 166 171 179
-14.25 3.58 -20.25 172 171 179
-14.08 3.58 -20.92 117 114 124
-14.08 3.58 -20.75 116 112 119
-14.08 3.58 -20.58 136 132 144
-14.08 3.58 -20.42 164 165 172
-13.92 3.58 -20.92 116 113 123
-13.92 3.58 -20.75 132 128 140
-13.92 3.58 -20.58 144 141 145
-13.92 3.58 -20.42 176 170 170
-13.75 3.58 -20.92 131 127 135
-13.75 3.58 -20.75 129 126 131
-13.58 3.58 -22.25 127 120 120
-13.58 3.58 -22.08 118 110 116
-13.58 3.58 -21.92 121 112 115
-13.42 3.58 -22.25 127 123 130
-13.42 3.58 -22.08 143 139 142
-13.25 3.58 -22.25 138 134 141
-13.08 3.58 -22.25 145 138 140
-8.58 3.58 5.25 132 113 116
-8.58 3.58 5.42 134 123 122
-8.58 3.58 5.58 148 142 145
-8.42 3.58 5.25 117 97 101
-8.42 3.58 5.42 119 106 105
-8.42 3.58 5.58 126 119 115
-8.42 3.58 5.75 90 77 77
-8.42 3.58 5.92 95 88 90
-8.08 3.58 5.25 150 145 147
-7.92 3.58 5.08 91 83 82
-7.92 3.58 5.25 78 69 70
-7.92 3.58 5.42 60 56 60
-7.92 3.58 5.58 63 56 61
-7.75 3.58 4.75 109 101 101
-7.75 3.58 4.92 64 58 61
-7.75 3.58 5.08 66 61 64
-7.75 3.58 5.25 62 60 63
-7.75 3.58 5.42 50 49 56
-7.75 3.58 5.58 51 50 57
-7.58 3.58 4.58 129 126 133
-7.58 3.58 4.75 63 58 63
-7.58 3.58 4.92 62 59 61
-7.58 3.58 5.08 68 66 67
-7.58 3.58 5.25 58 55 59
-7.58 3.58 5.42 49 48 55
-7.58 3.58 5.58 55 55 65
-7.42 3.58 4.58 91 91 99
-7.42 3.58 4.75 82 79 87
-7.42 3.58 4.92 78 70 74
-7.42 3.58 5.08 74 73 70
-7.42 3.58 5.25 62 62 65
-7.42 3.58 5.42 58 56 58
-7.42 3.58 5.58 54 55 61
-7.25 3.58 4.58 73 59 62
-7.25 3.58 4.75 92 74 72
-7.25 3.58 4.92 96 90 91
-7.25 3.58 5.08 82 77 82
-7.25 3.58 5.25 58 58 66
-7.25 3.58 5.42 63 61 67
-7.25 3.58 5.58 56 54 60
-7.08 3.58 4.58 95 82 85
-7.08 3.58 4.75 107 86 88
-7.08 3.58 4.92 121 117 124
-7.08 3.58 5.08 90 86 93
-7.08 3.58 5.25 59 56 63
-7.08 3.58 5.42 51 49 54
-7.08 3.58 5.58 55 54 60
-8.25 3.58 5.92 69 62 70
-8.25 3.58 6.08 85 76 82
-8.25 3.58 6.25 83 78 79
-8.25 3.58 6.42 91 83 87
-8.08 3.58 6.08 81 75 77
-8.08 3.58 6.42 78 75 77
-8.08 3.58 6.58 115 114 118
-7.92 3.58 5.75 80 75 80
-7.92 3.58 5.92 81 78 82
-7.92 3.58 6.42 92 89 88
-7.75 3.58 5.75 50 49 56
-7.75 3.58 5.92 55 53 56
-7.75 3.58 6.08 65 62 66
-7.75 3.58 6.25 89 80 81
-7.75 3.58 6.42 121 120 124
-7.58 3.58 5.75 55 55 63
-7.58 3.58 5.92 57 53 59
-7.58 3.58 6.08 58 55 59
-7.58 3.58 6.25 82 74 73
-7.42 3.58 5.75 68 68 82
-7.42 3.58 5.92 72 67 75
-7.42 3.58 6.08 90 86 94
-7.25 3.58 5.75 60 56 62
-7.25 3.58 5.92 67 60 68
-7.08 3.58 5.75 63 57 60
-7.08 3.58 5.92 111 117 123
-6.92 3.58 4.42 136 128 137
-6.92 3.58 4.58 103 90 93
-6.92 3.58 4.75 119 109 115
-6.92 3.58 4.92 123 123 132
-6.92 3.58 5.08 89 82 87
-6.92 3.58 5.25 88 85 95
-6.92 3.58 5.42 74 66 73
-6.92 3.58 5.58 88 90 98
-6.92 3.58 5.75 121 123 126
0.92 3.58 -8.92 106 101 106
0.92 3.58 -8.75 91 83 85
0.92 3.58 -8.42 91 82 82
1.08 3.58 -9.25 90 87 97
1.08 3.58 -9.08 75 71 75
1.25 3.58 -9.25 68 64 70
1.25 3.58 -9.08 62 61 67
1.42 3.58 -9.25 69 65 74
1.42 3.58 -9.08 61 58 69
1.58 3.58 -9.25 88 81 86
1.58 3.58 -9.08 71 69 78
1.75 3.58 -9.08 79 73 79
1.08 3.58 -8.92 77 70 75
1.08 3.58 -8.75 90 79 82
1.08 3.58 -8.58 93 85 87
1.08 3.58 -8.42 98 89 92
1.08 3.58 -8.25 115 109 112
1.08 3.58 -7.92 111 98 109
1.25 3.58 -8.92 75 72 79
1.25 3.58 -8.75 88 79 84
1.25 3.58 -8.58 98 90 96
1.25 3.58 -8.42 104 95 97
1.25 3.58 -8.25 103 95 96
1.25 3.58 -8.08 107 99 103
1.42 3.58 -8.92 67 62 70
1.42 3.58 -8.75 89 80 85
1.42 3.58 -8.58 103 94 100
1.42 3.58 -8.42 105 98 100
1.42 3.58 -8.25 98 89 92
1.42 3.58 -8.08 108 101 106
1.42 3.58 -7.92 96 94 100
1.58 3.58 -8.92 79 75 84
1.58 3.58 -8.75 93 86 91
1.58 3.58 -8.58 101 91 95
1.58 3.58 -8.42 101 99 105
1.58 3.58 -8.25 102 97 101
1.58 3.58 -8.08 124 121 128
1.58 3.58 -7.92 135 129 140
1.58 3.58 -7.75 148 146 148
1.75 3.58 -8.92 74 66 75
1.75 3.58 -8.75 82 73 79
1.75 3.58 -8.58 84 76 85
1.75 3.58 -8.42 89 83 94
1.75 3.58 -8.25 90 79 84
1.75 3.58 -8.08 97 83 89
1.75 3.58 -7.92 121 106 111
1.75 3.58 -7.75 125 110 115
1.92 3.58 -8.92 79 75 81
1.92 3.58 -8.75 73 67 73
1.92 3.58 -8.58 80 71 79
1.92 3.58 -8.42 79 68 74
1.92 3.58 -8.25 83 74 80
1.92 3.58 -8.08 108 102 110
2.08 3.58 -8.75 120 118 130
2.08 3.58 -8.58 115 105 108
2.08 3.58 -8.42 118 109 112
0.42 3.58 -2.58 89 83 93
0.42 3.58 -2.42 79 79 87
0.58 3.58 -2.58 73 66 76
0.58 3.58 -2.42 76 73 86
-13.08 3.42 -22.58 147 142 144
-13.08 3.42 -22.42 125 122 129
-12.92 3.42 -22.75 109 101 114
-12.92 3.42 -22.58 114 109 116
-14.58 3.42 -21.75 175 175 175
-14.58 3.42 -21.58 175 178 187
-14.58 3.42 -21.42 158 160 169
-14.58 3.42 -21.25 147 142 149
-14.58 3.42 -21.08 157 152 159
-14.42 3.42 -21.75 158 151 155
-14.42 3.42 -21.58 152 156 163
-14.42 3.42 -21.42 145 144 148
-14.42 3.42 -21.25 143 141 147
-14.42 3.42 -21.08 152 149 153
-14.25 3.42 -21.92 153 150 149
-14.25 3.42 -21.75 144 143 147
-14.25 3.42 -21.58 131 128 133
-14.25 3.42 -21.42 139 134 139
-14.25 3.42 -21.25 136 133 138
-14.25 3.42 -21.08 138 137 144
-14.08 3.42 -21.92 142 138 141
-14.08 3.42 -21.75 139 138 142
-14.08 3.42 -21.58 132 131 135
-14.08 3.42 -21.42 133 130 135
-14.08 3.42 -21.25 114 107 112
-14.08 3.42 -21.08 128 120 126
-13.92 3.42 -22.08 131 117 108
-13.92 3.42 -21.92 138 128 134
-13.92 3.42 -21.75 127 119 125
-13.92 3.42 -21.58 128 124 132
-13.92 3.42 -21.42 118 116 122
-13.92 3.42 -21.25 113 106 111
-13.92 3.42 -21.08 118 112 119
-13.75 3.42 -22.08 126 113 112
-13.75 3.42 -21.92 131 123 129
-13.75 3.42 -21.75 133 133 139
-13.75 3.42 -21.58 127 124 131
-13.75 3.42 -21.42 118 114 122
-13.75 3.42 -21.25 113 110 112
-13.75 3.42 -21.08 118 112 115
-14.58 3.42 -20.92 162 160 166
-14.58 3.42 -20.75 170 167 174
-14.58 3.42 -20.58 155 152 156
-14.58 3.42 -20.42 161 154 158
-14.58 3.42 -20.25 160 155 156
-14.58 3.42 -20.08 152 144 144
-14.42 3.42 -20.92 150 149 157
-14.42 3.42 -20.75 148 145 149
-14.42 3.42 -20.58 153 148 155
-14.42 3.42 -20.42 168 169 180
-14.42 3.42 -20.25 157 160 165
-14.42 3.42 -20.08 141 140 144
-14.25 3.42 -20.92 146 144 150
-14.25 3.42 -20.75 150 149 153
-14.25 3.42 -20.58 161 162 169
-14.25 3.42 -20.42 163 168 176
-14.25 3.42 -20.25 160 162 167
-14.08 3.42 -20.92 136 137 148
-14.08 3.42 -20.75 139 142 153
-14.08 3.42 -20.58 165 163 171
-14.08 3.42 -20.42 165 162 172
-13.92 3.42 -20.92 119 118 125
-13.92 3.42 -20.75 132 128 136
-13.92 3.42 -20.58 164 159 172
-13.75 3.42 -20.92 131 128 133
-13.75 3.42 -20.75 137 135 135
-13.75 3.42 -20.58 160 156 153
-13.58 3.42 -22.25 147 143 140
-13.58 3.42 -22.08 104 97 99
-13.58 3.42 -21.92 115 108 110
-13.58 3.42 -21.75 108 100 104
-13.42 3.42 -22.25 137 129 127
-13.25 3.42 -22.25 123 120 125
-8.58 3.42 5.25 140 131 135
-8.42 3.42 5.25 123 106 103
-8.42 3.42 5.42 112 100 101
-8.42 3.42 5.58 132 126 126
-8.42 3.42 5.75 92 85 87
-8.42 3.42 5.92 78 67 75
-8.42 3.42 6.08 126 121 122
-7.92 3.42 4.92 134 124 125
-7.92 3.42 5.08 87 76 77
-7.92 3.42 5.25 76 69 67
-7.92 3.42 5.42 71 61 66
-7.92 3.42 5.58 68 63 68
-7.75 3.42 4.75 87 82 86
-7.75 3.42 4.92 59 53 60
-7.75 3.42 5.08 65 64 68
-7.75 3.42 5.25 65 60 63
-7.75 3.42 5.42 53 50 55
-7.75 3.42 5.58 51 50 57
-7.58 3.42 4.58 125 124 128
-7.58 3.42 4.75 61 55 61
-7.58 3.42 4.92 62 58 64
-7.58 3.42 5.08 67 64 66
-7.58 3.42 5.25 68 67 71
-7.58 3.42 5.42 60 59 66
-7.58 3.42 5.58 60 57 66
-7.42 3.42 4.58 100 96 102
-7.42 3.42 4.75 71 66 68
-7.42 3.42 4.92 70 63 63
-7.42 3.42 5.08 69 68 70
-7.42 3.42 5.25 68 68 73
-7.42 3.42 5.42 63 65 71
-7.42 3.42 5.58 67 65 70
-7.25 3.42 4.42 112 92 92
-7.25 3.42 4.58 86 76 80
-7.25 3.42 4.75 87 78 80
-7.25 3.42 4.92 80 67 66
-7.25 3.42 5.08 72 73 78
-7.25 3.42 5.25 61 60 65
-7.25 3.42 5.42 50 51 55
-7.25 3.42 5.58 55 56 62
-7.08 3.42 4.42 102 95 100
-7.08 3.42 4.58 98 74 74
-7.08 3.42 4.75 115 100 102
-7.08 3.42 4.92 98 89 92
-7.08 3.42 5.08 83 79 85
-7.08 3.42 5.25 65 61 67
-7.08 3.42 5.42 54 53 58
-7.08 3.42 5.58 52 52 60
-8.25 3.42 5.75 83 76 81
-8.25 3.42 5.92 86 79 86
-8.25 3.42 6.08 115 107 110
-8.25 3.42 6.25 76 66 70
-8.25 3.42 6.42 103 100 101
-8.08 3.42 6.25 84 80 83
-8.08 3.42 6.42 80 71 79
-7.92 3.42 5.75 78 74 80
-7.92 3.42 5.92 89 87 89
-7.75 3.42 5.75 49 50 56
-7.75 3.42 5.92 49 50 54
-7.75 3.42 6.08 59 54 57
-7.75 3.42 6.25 78 70 74
-7.58 3.42 5.75 52 50 55
-7.58 3.42 5.92 54 51 58
-7.58 3.42 6.08 55 53 56
-7.58 3.42 6.25 77 74 73
-7.42 3.42 5.75 61 61 66
-7.42 3.42 5.92 55 51 57
-7.42 3.42 6.08 76 70 77
-7.42 3.42 6.25 114 113 120
-7.25 3.42 5.75 61 56 61
-7.25 3.42 5.92 61 53 57
-7.25 3.42 6.08 86 87 94
-7.08 3.42 5.75 58 54 63
-7.08 3.42 5.92 91 89 93
-6.92 3.42 4.42 119 106 105
-6.92 3.42 4.58 109 92 93
-6.92 3.42 4.75 124 121 128
-6.92 3.42 4.92 104 98 107
-6.92 3.42 5.08 78 70 77
-6.92 3.42 5.25 69 66 75
-6.92 3.42 5.42 69 65 73
-6.92 3.42 5.58 64 59 63
-6.75 3.42 5.25 101 101 104
-6.92 3.42 5.75 101 97 95
0.92 3.42 -9.08 102 97 101
0.92 3.42 -8.92 98 87 90
0.92 3.42 -8.75 93 85 88
0.92 3.42 -8.58 90 82 86
1.08 3.42 -9.25 79 76 85
1.08 3.42 -9.08 60 57 64
1.25 3.42 -9.25 70 67 76
1.25 3.42 -9.08 60 58 69
1.42 3.42 -9.25 63 56 66
1.42 3.42 -9.08 61 56 64
1.58 3.42 -9.25 104 98 103
1.58 3.42 -9.08 74 72 81
1.75 3.42 -9.08 88 82 89
1.08 3.42 -8.92 70 66 72
1.08 3.42 -8.75 83 76 83
1.08 3.42 -8.58 88 81 83
1.08 3.42 -8.42 92 85 87
1.08 3.42 -8.25 101 93 97
1.08 3.42 -8.08 123 117 117
1.25 3.42 -8.92 70 67 76
1.25 3.42 -8.75 84 78 81
1.25 3.42 -8.58 89 82 87
1.25 3.42 -8.42 84 79 83
1.25 3.42 -8.25 95 88 93
1.25 3.42 -8.08 93 89 95
1.42 3.42 -8.92 70 66 72
1.42 3.42 -8.75 84 77 83
1.42 3.42 -8.58 84 77 83
1.42 3.42 -8.42 88 83 88
1.42 3.42 -8.25 98 89 95
1.42 3.42 -8.08 96 90 99
1.42 3.42 -7.92 97 94 102
1.58 3.42 -8.92 71 66 74
1.58 3.42 -8.75 75 70 80
1.58 3.42 -8.58 80 79 87
1.58 3.42 -8.42 90 89 93
1.58 3.42 -8.25 97 92 97
1.58 3.42 -8.08 113 108 113
1.58 3.42 -7.92 140 138 144
1.58 3.42 -7.75 151 154 159
1.75 3.42 -8.92 77 72 80
1.75 3.42 -8.75 76 72 83
1.75 3.42 -8.58 89 83 93
1.75 3.42 -8.42 89 85 93
1.75 3.42 -8.25 89 82 87
1.75 3.42 -8.08 98 83 87
1.75 3.42 -7.92 125 111 118
1.92 3.42 -8.92 83 77 86
1.92 3.42 -8.75 74 66 76
1.92 3.42 -8.58 79 69 77
1.92 3.42 -8.42 83 76 81
1.92 3.42 -8.25 88 76 83
1.92 3.42 -8.08 104 98 103
2.08 3.42 -8.58 110 102 106
2.08 3.42 -8.42 125 119 122
1.75 3.42 -7.58 112 104 103
0.42 3.42 -2.58 110 105 115
0.42 3.42 -2.42 90 80 93
0.58 3.42 -2.75 115 110 118
0.58 3.42 -2.58 94 83 89
0.58 3.42 -2.42 93 94 104
-12.92 3.25 -22.75 113 110 120
-14.75 3.25 -21.75 176 177 182
-14.75 3.25 -21.58 187 191 198
-14.58 3.25 -21.75 167 173 187
-14.58 3.25 -21.58 169 178 188
-14.58 3.25 -21.42 167 169 178
-14.58 3.25 -21.25 152 154 157
-14.58 3.25 -21.08 167 167 173
-14.42 3.25 -21.75 152 153 164
-14.42 3.25 -21.58 153 154 165
-14.42 3.25 -21.42 158 159 164
-14.42 3.25 -21.25 155 152 156
-14.42 3.25 -21.08 161 162 169
-14.25 3.25 -21.92 155 153 156
-14.25 3.25 -21.75 157 160 167
-14.25 3.25 -21.58 143 144 152
-14.25 3.25 -21.42 143 140 150
-14.25 3.25 -21.25 151 150 158
-14.25 3.25 -21.08 148 149 157
-14.08 3.25 -21.92 134 125 127
-14.08 3.25 -21.75 141 139 145
-14.08 3.25 -21.58 138 136 142
-14.08 3.25 -21.42 138 136 142
-14.08 3.25 -21.25 127 123 131
-14.08 3.25 -21.08 129 125 133
-13.92 3.25 -21.92 125 119 122
-13.92 3.25 -21.75 135 132 139
-13.92 3.25 -21.58 135 132 137
-13.92 3.25 -21.42 132 131 138
-13.92 3.25 -21.25 119 121 130
-13.92 3.25 -21.08 128 123 128
-13.75 3.25 -21.92 117 111 118
-13.75 3.25 -21.75 132 131 138
-13.75 3.25 -21.58 131 125 134
-13.75 3.25 -21.42 118 114 122
-13.75 3.25 -21.25 123 120 127
-13.75 3.25 -21.08 120 114 117
-14.58 3.25 -20.92 177 176 184
-14.58 3.25 -20.75 171 170 178
-14.58 3.25 -20.58 163 156 160
-14.58 3.25 -20.42 160 152 152
-14.58 3.25 -20.25 170 161 160
-14.42 3.25 -20.92 167 168 176
-14.42 3.25 -20.75 169 173 180
-14.42 3.25 -20.58 145 142 146
-14.42 3.25 -20.42 144 138 141
-14.42 3.25 -20.25 155 149 153
-14.42 3.25 -20.08 136 132 139
-14.25 3.25 -20.92 154 156 163
-14.25 3.25 -20.75 167 168 179
-14.25 3.25 -20.58 165 166 173
-14.25 3.25 -20.42 157 158 163
-14.25 3.25 -20.25 160 161 168
-14.08 3.25 -20.92 150 150 160
-14.08 3.25 -20.75 165 168 179
-14.08 3.25 -20.58 162 164 173
-14.08 3.25 -20.42 161 159 165
-14.08 3.25 -20.25 174 172 174
-14.08 3.25 -20.08 164 168 175
-13.92 3.25 -20.92 140 136 144
-13.92 3.25 -20.75 153 157 166
-13.92 3.25 -20.58 161 159 165
-13.92 3.25 -20.42 177 175 178
-13.75 3.25 -20.92 134 126 132
-13.75 3.25 -20.75 154 149 156
-13.58 3.25 -22.25 139 129 130
-13.58 3.25 -22.08 119 113 111
-13.58 3.25 -21.92 127 121 121
-13.58 3.25 -21.75 124 118 118
-13.58 3.25 -21.58 109 104 111
-7.92 3.25 5.08 111 100 105
-7.92 3.25 5.25 109 99 98
-7.92 3.25 5.42 78 69 74
-7.92 3.25 5.58 76 74 83
-7.75 3.25 4.75 109 108 115
-7.75 3.25 4.92 69 62 67
-7.75 3.25 5.08 67 62 65
-7.75 3.25 5.25 64 59 62
-7.75 3.25 5.42 67 66 70
-7.75 3.25 5.58 58 54 60
-7.58 3.25 4.58 113 111 117
-7.58 3.25 4.75 59 55 59
-7.58 3.25 4.92 61 58 60
-7.58 3.25 5.08 68 62 66
-7.58 3.25 5.25 67 58 61
-7.58 3.25 5.42 68 71 83
-7.58 3.25 5.58 67 66 73
-7.42 3.25 4.58 77 73 74
-7.42 3.25 4.75 61 57 63
-7.42 3.25 4.92 69 61 63
-7.42 3.25 5.08 66 61 61
-7.42 3.25 5.25 67 67 75
-7.42 3.25 5.42 63 62 69
-7.42 3.25 5.58 53 52 58
-7.25 3.25 4.42 129 121 127
-7.25 3.25 4.58 83 75 82
-7.25 3.25 4.75 67 61 61
-7.25 3.25 4.92 74 65 68
-7.25 3.25 5.08 72 74 77
-7.25 3.25 5.25 63 65 69
-7.25 3.25 5.42 52 50 58
-7.25 3.25 5.58 55 54 59
-7.08 3.25 4.42 103 86 91
-7.08 3.25 4.58 104 91 96
-7.08 3.25 4.75 94 77 78
-7.08 3.25 4.92 91 83 85
-7.08 3.25 5.08 79 72 77
-7.08 3.25 5.25 63 55 62
-7.08 3.25 5.42 59 57 62
-7.08 3.25 5.58 62 61 70
-8.25 3.25 5.75 76 73 75
-8.25 3.25 5.92 82 78 84
-8.25 3.25 6.08 115 110 112
-8.25 3.25 6.25 94 77 81
-8.25 3.25 6.42 113 104 106
-8.08 3.25 6.42 100 98 104
-7.92 3.25 5.75 72 68 77
-7.92 3.25 5.92 77 74 78
-7.75 3.25 5.75 54 52 57
-7.75 3.25 5.92 53 51 56
-7.75 3.25 6.08 57 52 56
-7.75 3.25 6.25 66 59 64
-7.75 3.25 6.42 109 108 112
-7.58 3.25 5.75 62 63 68
-7.58 3.25 5.92 60 60 65
-7.58 3.25 6.08 55 54 61
-7.58 3.25 6.25 70 70 73
-7.42 3.25 5.75 50 49 56
-7.42 3.25 5.92 51 51 56
-7.42 3.25 6.08 58 54 60
-7.42 3.25 6.25 89 89 98
-7.25 3.25 5.75 51 50 57
-7.25 3.25 5.92 57 53 59
-7.25 3.25 6.08 78 74 75
-7.08 3.25 5.75 55 51 57
-7.08 3.25 5.92 72 70 76
-6.92 3.25 4.42 100 82 87
-6.92 3.25 4.58 114 105 113
-6.92 3.25 4.75 114 108 115
-6.92 3.25 4.92 101 98 106
-6.92 3.25 5.08 75 75 83
-6.92 3.25 5.25 70 70 80
-6.92 3.25 5.42 71 71 81
-6.92 3.25 5.58 75 69 76
-6.75 3.25 5.25 97 102 112
-6.75 3.25 5.42 103 107 115
-6.75 3.25 5.58 138 138 138
-6.92 3.25 5.75 80 74 76
-6.75 3.25 5.75 188 194 198
0.92 3.25 -9.08 101 95 96
0.92 3.25 -8.92 89 80 85
0.92 3.25 -8.75 81 76 81
0.92 3.25 -8.58 90 83 88
0.92 3.25 -8.42 99 91 97
1.08 3.25 -9.25 71 68 75
1.08 3.25 -9.08 61 58 69
1.25 3.25 -9.42 92 87 92
1.25 3.25 -9.25 64 64 72
1.25 3.25 -9.08 62 60 70
1.42 3.25 -9.25 67 63 67
1.42 3.25 -9.08 69 65 73
1.58 3.25 -9.08 68 63 71
1.75 3.25 -9.08 101 99 105
1.08 3.25 -8.92 71 66 74
1.08 3.25 -8.75 71 69 75
1.08 3.25 -8.58 74 71 75
1.08 3.25 -8.42 79 74 79
1.08 3.25 -8.25 90 85 90
1.08 3.25 -8.08 103 97 95
1.25 3.25 -8.92 69 67 72
1.25 3.25 -8.75 73 69 75
1.25 3.25 -8.58 68 64 70
1.25 3.25 -8.42 66 62 68
1.25 3.25 -8.25 80 77 85
1.25 3.25 -8.08 78 74 80
1.25 3.25 -7.92 90 85 93
1.42 3.25 -8.92 71 69 79
1.42 3.25 -8.75 73 72 79
1.42 3.25 -8.58 80 78 84
1.42 3.25 -8.42 78 75 83
1.42 3.25 -8.25 85 78 85
1.42 3.25 -8.08 96 90 99
1.42 3.25 -7.92 95 89 95
1.42 3.25 -7.75 118 114 122
1.58 3.25 -8.92 64 61 71
1.58 3.25 -8.75 71 68 75
1.58 3.25 -8.58 74 69 73
1.58 3.25 -8.42 74 73 80
1.58 3.25 -8.25 92 91 98
1.58 3.25 -8.08 107 107 116
1.58 3.25 -7.92 131 127 134
1.58 3.25 -7.75 138 132 132
1.75 3.25 -8.92 78 74 85
1.75 3.25 -8.75 71 70 80
1.75 3.25 -8.58 75 75 83
1.75 3.25 -8.42 79 76 84
1.75 3.25 -8.25 83 77 86
1.75 3.25 -8.08 98 85 94
1.75 3.25 -7.92 126 115 118
1.92 3.25 -8.92 96 87 94
1.92 3.25 -8.75 73 69 80
1.92 3.25 -8.58 76 71 79
1.92 3.25 -8.42 79 73 79
1.92 3.25 -8.25 89 81 85
1.92 3.25 -8.08 111 105 112
2.08 3.25 -8.58 113 110 112
2.08 3.25 -8.42 128 123 124
0.42 3.25 -2.58 111 98 109
0.42 3.25 -2.42 96 88 100
0.58 3.25 -2.75 107 93 101
0.58 3.25 -2.58 96 88 94
0.75 3.25 -2.58 122 110 117
-14.92 3.08 -21.75 163 166 181
-14.75 3.08 -21.92 160 155 156
-14.75 3.08 -21.75 185 194 208
-14.75 3.08 -21.58 200 209 225
-14.75 3.08 -21.42 188 193 202
-14.58 3.08 -21.92 137 135 147
-14.58 3.08 -21.75 166 173 185
-14.58 3.08 -21.58 172 178 191
-14.58 3.08 -21.42 181 181 193
-14.58 3.08 -21.25 181 182 189
-14.58 3.08 -21.08 181 185 192
-14.42 3.08 -21.92 156 153 157
-14.42 3.08 -21.75 149 148 162
-14.42 3.08 -21.58 158 158 168
-14.42 3.08 -21.42 164 165 176
-14.42 3.08 -21.25 172 173 181
-14.42 3.08 -21.08 168 169 177
-14.25 3.08 -21.92 174 161 168
-14.25 3.08 -21.75 172 172 182
-14.25 3.08 -21.58 157 156 164
-14.25 3.08 -21.42 149 148 156
-14.25 3.08 -21.25 163 161 169
-14.25 3.08 -21.08 162 167 175
-14.08 3.08 -21.92 150 131 134
-14.08 3.08 -21.75 147 137 143
-14.08 3.08 -21.58 147 147 156
-14.08 3.08 -21.42 150 146 155
-14.08 3.08 -21.25 154 154 164
-14.08 3.08 -21.08 156 152 164
-13.92 3.08 -21.92 137 118 116
-13.92 3.08 -21.75 138 135 140
-13.92 3.08 -21.58 139 138 142
-13.92 3.08 -21.42 141 140 147
-13.92 3.08 -21.25 137 138 149
-13.92 3.08 -21.08 141 136 141
-13.75 3.08 -21.92 133 127 127
-13.75 3.08 -21.58 133 130 137
-13.75 3.08 -21.42 131 128 133
-13.75 3.08 -21.25 134 131 136
-13.75 3.08 -21.08 129 126 131
-14.58 3.08 -20.92 178 177 185
-14.58 3.08 -20.75 182 179 184
-14.58 3.08 -20.58 177 170 168
-14.58 3.08 -20.42 165 158 154
-14.42 3.08 -20.92 170 170 180
-14.42 3.08 -20.75 159 156 161
-14.42 3.08 -20.58 164 161 166
-14.42 3.08 -20.42 154 150 151
-14.42 3.08 -20.25 150 141 139
-14.42 3.08 -20.08 143 134 138
-14.25 3.08 -20.92 164 168 175
-14.25 3.08 -20.75 159 158 166
-14.25 3.08 -20.58 157 155 161
-14.25 3.08 -20.42 155 148 153
-14.25 3.08 -20.25 151 148 152
-14.25 3.08 -20.08 105 98 100
-14.08 3.08 -20.92 160 157 165
-14.08 3.08 -20.75 169 170 181
-14.08 3.08 -20.58 166 169 174
-14.08 3.08 -20.42 161 162 164
-13.92 3.08 -20.92 147 145 151
-13.92 3.08 -20.75 159 159 163
-13.92 3.08 -20.58 161 162 167
-13.92 3.08 -20.42 180 175 176
-13.75 3.08 -20.92 149 146 148
-13.75 3.08 -20.75 161 154 158
-13.75 3.08 -20.58 169 165 172
-13.58 3.08 -22.25 107 99 99
-13.58 3.08 -22.08 103 95 99
-13.58 3.08 -21.92 110 104 102
-13.58 3.08 -21.75 100 95 98
-7.92 3.08 5.58 96 93 101
-7.75 3.08 5.08 92 87 92
-7.75 3.08 5.25 79 71 75
-7.75 3.08 5.42 64 54 57
-7.75 3.08 5.58 68 66 71
-7.58 3.08 4.75 60 53 61
-7.58 3.08 4.92 60 57 61
-7.58 3.08 5.08 67 62 65
-7.58 3.08 5.25 67 59 61
-7.58 3.08 5.42 65 67 75
-7.58 3.08 5.58 64 65 72
-7.42 3.08 4.58 63 58 63
-7.42 3.08 4.75 60 57 61
-7.42 3.08 4.92 66 60 61
-7.42 3.08 5.08 70 61 62
-7.42 3.08 5.25 70 70 75
-7.42 3.08 5.42 67 67 75
-7.42 3.08 5.58 50 51 58
-7.25 3.08 4.42 124 124 129
-7.25 3.08 4.58 67 57 61
-7.25 3.08 4.75 61 59 60
-7.25 3.08 4.92 73 64 64
-7.25 3.08 5.08 71 72 77
-7.25 3.08 5.25 64 66 74
-7.25 3.08 5.42 52 53 62
-7.25 3.08 5.58 52 50 55
-7.08 3.08 4.42 114 103 109
-7.08 3.08 4.58 79 66 68
-7.08 3.08 4.75 84 68 69
-7.08 3.08 4.92 89 80 82
-7.08 3.08 5.08 82 74 76
-7.08 3.08 5.25 64 56 63
-7.08 3.08 5.42 58 56 61
-7.08 3.08 5.58 59 57 62
-8.25 3.08 6.25 87 85 86
-7.92 3.08 5.75 91 85 92
-7.92 3.08 5.92 118 112 115
-7.92 3.08 6.08 88 81 86
-7.75 3.08 5.75 68 69 75
-7.75 3.08 5.92 66 66 71
-7.75 3.08 6.08 63 61 67
-7.75 3.08 6.25 68 58 67
-7.58 3.08 5.75 55 54 60
-7.58 3.08 5.92 51 51 56
-7.58 3.08 6.08 51 51 56
-7.58 3.08 6.25 71 68 72
-7.42 3.08 5.75 50 49 56
-7.42 3.08 5.92 51 49 54
-7.42 3.08 6.08 58 55 59
-7.42 3.08 6.25 85 86 96
-7.25 3.08 5.75 49 49 54
-7.25 3.08 5.92 53 50 54
-7.25 3.08 6.08 67 64 68
-7.08 3.08 5.75 53 51 56
-7.08 3.08 5.92 60 56 60
-7.08 3.08 6.08 119 119 124
-6.92 3.08 4.25 121 112 115
-6.92 3.08 4.42 107 100 105
-6.92 3.08 4.58 98 90 96
-6.92 3.08 4.75 102 100 106
-6.92 3.08 4.92 96 97 102
-6.92 3.08 5.08 76 77 87
-6.92 3.08 5.25 69 70 79
-6.92 3.08 5.42 72 72 81
-6.92 3.08 5.58 84 79 80
-6.75 3.08 5.08 96 94 100
-6.75 3.08 5.25 83 84 89
-6.75 3.08 5.42 91 96 103
-6.75 3.08 5.58 105 104 115
-6.92 3.08 5.75 81 73 75
-6.92 3.08 5.92 123 122 121
-6.75 3.08 5.75 180 185 190
0.92 3.08 -9.08 94 84 88
0.92 3.08 -8.92 80 73 78
0.92 3.08 -8.75 73 71 77
0.92 3.08 -8.58 75 69 76
0.92 3.08 -8.42 98 89 96
1.08 3.08 -9.25 74 71 78
1.08 3.08 -9.08 65 60 70
1.25 3.08 -9.42 90 87 89
1.25 3.08 -9.25 64 61 68
1.25 3.08 -9.08 63 61 70
1.42 3.08 -9.25 73 71 77
1.42 3.08 -9.08 70 68 79
1.58 3.08 -9.25 112 104 107
1.58 3.08 -9.08 68 63 71
1.08 3.08 -8.92 69 68 75
1.08 3.08 -8.75 66 65 72
1.08 3.08 -8.58 61 58 67
1.08 3.08 -8.42 69 65 74
1.08 3.08 -8.25 74 71 78
1.08 3.08 -8.08 91 87 88
1.25 3.08 -8.92 63 62 72
1.25 3.08 -8.75 60 59 66
1.25 3.08 -8.58 55 55 63
1.25 3.08 -8.42 61 58 67
1.25 3.08 -8.25 73 72 79
1.25 3.08 -8.08 77 73 81
1.25 3.08 -7.92 85 83 89
1.42 3.08 -8.92 69 69 77
1.42 3.08 -8.75 70 69 75
1.42 3.08 -8.58 72 72 82
1.42 3.08 -8.42 76 70 78
1.42 3.08 -8.25 79 73 79
1.42 3.08 -8.08 86 84 93
1.42 3.08 -7.92 97 91 100
1.42 3.08 -7.75 118 114 122
1.58 3.08 -8.92 67 63 74
1.58 3.08 -8.75 68 63 71
1.58 3.08 -8.58 67 65 73
1.58 3.08 -8.42 70 69 76
1.58 3.08 -8.25 85 82 89
1.58 3.08 -8.08 102 95 100
1.58 3.08 -7.92 122 118 126
1.58 3.08 -7.75 133 125 131
1.75 3.08 -8.92 66 65 75
1.75 3.08 -8.75 65 65 73
1.75 3.08 -8.58 70 70 78
1.75 3.08 -8.42 72 67 75
1.75 3.08 -8.25 70 66 75
1.75 3.08 -8.08 94 82 87
1.75 3.08 -7.92 124 112 113
1.92 3.08 -8.92 100 99 110
1.92 3.08 -8.75 77 74 78
1.92 3.08 -8.58 69 65 71
1.92 3.08 -8.42 71 64 69
1.92 3.08 -8.25 77 72 79
0.42 3.08 -2.58 107 92 103
0.58 3.08 -2.75 101 90 92
0.75 3.08 -2.75 114 107 112
0.75 3.08 -2.58 108 95 109
-14.92 2.92 -21.92 159 152 159
-14.92 2.92 -21.75 181 189 203
-14.92 2.92 -21.58 200 209 225
-14.75 2.92 -21.92 174 176 179
-14.75 2.92 -21.75 193 205 220
-14.75 2.92 -21.58 193 206 223
-14.75 2.92 -21.42 202 207 222
-14.75 2.92 -21.25 202 204 207
-14.58 2.92 -21.92 146 140 149
-14.58 2.92 -21.75 168 172 189
-14.58 2.92 -21.58 179 182 193
-14.58 2.92 -21.42 192 199 211
-14.58 2.92 -21.25 195 198 213
-14.58 2.92 -21.08 178 180 187
-14.42 2.92 -22.08 156 130 122
-14.42 2.92 -21.92 159 153 162
-14.42 2.92 -21.75 150 151 162
-14.42 2.92 -21.58 164 160 175
-14.42 2.92 -21.42 182 186 199
-14.42 2.92 -21.25 180 182 191
-14.42 2.92 -21.08 182 180 188
-14.25 2.92 -21.92 171 154 158
-14.25 2.92 -21.75 165 163 171
-14.25 2.92 -21.58 172 177 186
-14.25 2.92 -21.42 164 163 173
-14.25 2.92 -21.25 168 168 177
-14.25 2.92 -21.08 178 183 191
-14.08 2.92 -21.92 165 145 145
-14.08 2.92 -21.75 156 140 140
-14.08 2.92 -21.58 166 155 162
-14.08 2.92 -21.42 168 169 177
-14.08 2.92 -21.25 162 168 178
-14.08 2.92 -21.08 167 168 179
-13.92 2.92 -21.75 136 123 125
-13.92 2.92 -21.42 153 153 163
-13.92 2.92 -21.25 157 152 159
-13.92 2.92 -21.08 160 159 167
-13.75 2.92 -21.75 130 124 122
-13.75 2.92 -21.42 140 140 149
-13.75 2.92 -21.25 142 140 146
-13.75 2.92 -21.08 152 150 156
-14.58 2.92 -20.75 170 166 163
-14.42 2.92 -20.92 172 170 176
-14.42 2.92 -20.75 162 161 163
-14.42 2.92 -20.58 164 160 163
-14.42 2.92 -20.42 162 156 153
-14.25 2.92 -20.92 172 175 184
-14.25 2.92 -20.75 159 160 165
-14.25 2.92 -20.58 156 154 160
-14.25 2.92 -20.42 147 141 144
-14.25 2.92 -20.25 143 134 142
-14.08 2.92 -20.92 161 160 170
-14.08 2.92 -20.75 160 156 159
-14.08 2.92 -20.58 161 163 169
-14.08 2.92 -20.42 153 155 158
-14.08 2.92 -20.25 137 129 129
-13.92 2.92 -20.92 152 152 158
-13.92 2.92 -20.75 158 153 160
-13.92 2.92 -20.58 162 162 166
-13.92 2.92 -20.42 170 171 179
-13.75 2.92 -20.92 158 155 159
